1 -1.84 0.0373662  -0.0386387 0.144761 -0.988712
1 -1.8 0.0432228  -0.0445549 0.16299 -0.985621
1 -1.76 0.0498375  -0.0488227 0.172851 -0.983737
1 -1.72 0.0572809  -0.0558755 0.193293 -0.979549
1 -1.68 0.0656257  -0.0636856 0.215153 -0.974502
1 -1.64 0.074946  -0.0722813 0.23834 -0.968488
1 -1.6 0.0853165  -0.0816811 0.262725 -0.961407
1 -1.56 0.0968117  -0.091892 0.288135 -0.95317
1 -1.52 0.109505  -0.102908 0.314357 -0.943711
1 -1.48 0.123466  -0.114709 0.341138 -0.932988
1 -1.44 0.138763  -0.127263 0.368195 -0.920998
1 -1.4 0.155457  -0.140525 0.395221 -0.907774
1 -1.36 0.173602  -0.15444 0.421898 -0.893393
1 -1.32 0.193247  -0.168947 0.447905 -0.877974
1 -1.28 0.214427  -0.176422 0.460607 -0.869894
1 -1.2 0.261483  -0.223768 0.529537 -0.818241
1 -1.16 0.287369  -0.23163 0.539477 -0.809513
1 -1.12 0.314809  -0.24819 0.558083 -0.791799
1 -1.08 0.343768  -0.265028 0.574635 -0.774309
1 -1.04 0.374191  -0.282126 0.589028 -0.757265
1 -1 0.406006  -0.299478 0.601187 -0.740869
1 -0.96 0.439118  -0.317087 0.611059 -0.725302
1 -0.92 0.473413  -0.334968 0.618607 -0.710719
1 -0.88 0.508756  -0.353143 0.623804 -0.697251
1 -0.84 0.54499  -0.373058 0.622895 -0.687626
1 -0.8 0  0 0 -1
1 -0.76 0  0 0 -1
1 -0.72 0  0 0 -1
1 -0.68 0  0 0 -1
1 -0.64 0  0 0 -1
1 -0.6 0  0 0 -1
1 -0.56 0  0 0 -1
1 -0.52 0  0 0 -1
1 -0.48 0  0 0 -1
1 -0.44 0  0 0 -1
1 -0.4 0  0 0 -1
1 -0.36 0  0 0 -1
1 -0.32 0  0 0 -1
1 -0.28 0  0 0 -1
1 -0.24 0  0 0 -1
1 -0.2 0  0 0 -1
1 -0.16 0  0 0 -1
1 -0.12 0  0 0 -1
1 -0.08 0  0 0 -1
1 -0.04 0  0 0 -1
1 0 0  0 0 -1
1 0.04 0  0 0 -1
1 0.08 0  0 0 -1
1 0.12 0  0 0 -1
1 0.16 0  0 0 -1
1 0.2 0  0 0 -1
1 0.24 0  0 0 -1
1 0.28 0  0 0 -1
1 0.32 0  0 0 -1
1 0.36 0  0 0 -1
1 0.4 0  0 0 -1
1 0.44 0  0 0 -1
1 0.48 0  0 0 -1
1 0.52 0  0 0 -1
1 0.56 0  0 0 -1
1 0.6 0  0 0 -1
1 0.64 0  0 0 -1
1 0.68 0  0 0 -1
1 0.72 0  0 0 -1
1 0.76 0  0 0 -1
1 0.8 0  0 0 -1
1 0.84 0.54499  -0.373058 -0.622895 -0.687626
1 0.88 0.508756  -0.353143 -0.623804 -0.697251
1 0.92 0.473413  -0.334968 -0.618607 -0.710719
1 0.96 0.439118  -0.317087 -0.611059 -0.725302
1 1 0.406006  -0.299478 -0.601187 -0.740869
1 1.04 0.374191  -0.282126 -0.589028 -0.757265
1 1.08 0.343768  -0.265028 -0.574635 -0.774309
1 1.12 0.314809  -0.24819 -0.558083 -0.791799
1 1.16 0.287369  -0.218704 -0.551999 -0.804653
1 1.24 0.237168  -0.210787 -0.483132 -0.849795
1 1.28 0.214427  -0.183981 -0.472936 -0.861674
1 1.32 0.193247  -0.168947 -0.447905 -0.877974
1 1.36 0.173602  -0.15444 -0.421898 -0.893393
1 1.4 0.155457  -0.140525 -0.395221 -0.907774
1 1.44 0.138763  -0.127263 -0.368195 -0.920998
1 1.48 0.123466  -0.114709 -0.341138 -0.932988
1 1.52 0.109505  -0.102908 -0.314357 -0.943711
1 1.56 0.0968117  -0.091892 -0.288135 -0.95317
1 1.6 0.0853165  -0.0816811 -0.262725 -0.961407
1 1.64 0.074946  -0.0722813 -0.23834 -0.968488
1 1.68 0.0656257  -0.0636856 -0.215153 -0.974502
1 1.72 0.0572809  -0.0558755 -0.193293 -0.979549
1 1.76 0.0498375  -0.0488227 -0.172851 -0.983737
1 1.8 0.0432228  -0.0424907 -0.153878 -0.987176
1 1.84 0.0373662  -0.0368374 -0.136392 -0.98997
1 1.88 0.0322  -0.0318164 -0.120383 -0.992218
1 1.92 0.0276595  -0.0273793 -0.105817 -0.994009
1 1.96 0.0236832  -0.0234767 -0.0926405 -0.995423
1.05 -1.96 0.0224448  -0.0255549 0.0878303 -0.995808
1.05 -1.92 0.0262131  -0.0298064 0.100334 -0.994507
1.05 -1.88 0.0305162  -0.035815 0.121416 -0.991955
1.05 -1.84 0.0354122  -0.0401159 0.129367 -0.990785
1.05 -1.8 0.0409625  -0.0462824 0.145984 -0.988204
1.05 -1.76 0.0472313  -0.0531935 0.164028 -0.985021
1.05 -1.72 0.0542855  -0.0608969 0.183484 -0.981135
1.05 -1.68 0.062194  -0.0694345 0.20431 -0.976441
1.05 -1.64 0.0710268  -0.0788402 0.226427 -0.970832
1.05 -1.6 0.080855  -0.0891369 0.249716 -0.964208
1.05 -1.56 0.0917491  -0.100336 0.27402 -0.956476
1.05 -1.52 0.103778  -0.112433 0.29914 -0.947562
1.05 -1.48 0.11701  -0.12541 0.324841 -0.937417
1.05 -1.44 0.131507  -0.139233 0.350853 -0.926022
1.05 -1.4 0.147327  -0.153856 0.376882 -0.913394
1.05 -1.36 0.164524  -0.169217 0.402619 -0.899591
1.05 -1.32 0.183141  -0.185248 0.427751 -0.88471
1.05 -1.28 0.203214  -0.19653 0.43976 -0.876349
1.05 -1.2 0.247809  -0.242475 0.50722 -0.827003
1.05 -1.16 0.272342  -0.254578 0.516403 -0.81763
1.05 -1.12 0.298347  -0.272867 0.53438 -0.799989
1.05 -1.08 0.325792  -0.291429 0.550317 -0.782445
1.05 -1.04 0.354624  -0.310231 0.564094 -0.765215
1.05 -1 0.384775  -0.32925 0.575624 -0.7485
1.05 -0.96 0.416155  -0.348474 0.584841 -0.73248
1.05 -0.92 0.448657  -0.367904 0.591701 -0.717312
1.05 -0.88 0.482151  -0.387546 0.59617 -0.703128
1.05 -0.84 0.516491  -0.40883 0.594458 -0.692443
1.05 -0.8 0  0 0 -1
1.05 -0.76 0  0 0 -1
1.05 -0.72 0  0 0 -1
1.05 -0.68 0  0 0 -1
1.05 -0.64 0  0 0 -1
1.05 -0.6 0  0 0 -1
1.05 -0.56 0  0 0 -1
1.05 -0.52 0  0 0 -1
1.05 -0.48 0  0 0 -1
1.05 -0.44 0  0 0 -1
1.05 -0.4 0  0 0 -1
1.05 -0.36 0  0 0 -1
1.05 -0.32 0  0 0 -1
1.05 -0.28 0  0 0 -1
1.05 -0.24 0  0 0 -1
1.05 -0.2 0  0 0 -1
1.05 -0.16 0  0 0 -1
1.05 -0.12 0  0 0 -1
1.05 -0.08 0  0 0 -1
1.05 -0.04 0  0 0 -1
1.05 0 0  0 0 -1
1.05 0.04 0  0 0 -1
1.05 0.08 0  0 0 -1
1.05 0.12 0  0 0 -1
1.05 0.16 0  0 0 -1
1.05 0.2 0  0 0 -1
1.05 0.24 0  0 0 -1
1.05 0.28 0  0 0 -1
1.05 0.32 0  0 0 -1
1.05 0.36 0  0 0 -1
1.05 0.4 0  0 0 -1
1.05 0.44 0  0 0 -1
1.05 0.48 0  0 0 -1
1.05 0.52 0  0 0 -1
1.05 0.56 0  0 0 -1
1.05 0.6 0  0 0 -1
1.05 0.64 0  0 0 -1
1.05 0.68 0  0 0 -1
1.05 0.72 0  0 0 -1
1.05 0.76 0  0 0 -1
1.05 0.8 0  0 0 -1
1.05 0.84 0.516491  -0.40883 -0.594458 -0.692443
1.05 0.88 0.482151  -0.387546 -0.59617 -0.703128
1.05 0.92 0.448657  -0.367904 -0.591701 -0.717312
1.05 0.96 0.416155  -0.348474 -0.584841 -0.73248
1.05 1 0.384775  -0.32925 -0.575624 -0.7485
1.05 1.04 0.354624  -0.310231 -0.564094 -0.765215
1.05 1.08 0.325792  -0.291429 -0.550317 -0.782445
1.05 1.12 0.298347  -0.272867 -0.53438 -0.799989
1.05 1.16 0.272342  -0.244339 -0.528547 -0.81298
1.05 1.24 0.224766  -0.22795 -0.461841 -0.85717
1.05 1.28 0.203214  -0.201874 -0.45197 -0.86889
1.05 1.32 0.183141  -0.185248 -0.427751 -0.88471
1.05 1.36 0.164524  -0.169217 -0.402619 -0.899591
1.05 1.4 0.147327  -0.153856 -0.376882 -0.913394
1.05 1.44 0.131507  -0.139233 -0.350853 -0.926022
1.05 1.48 0.11701  -0.12541 -0.324841 -0.937417
1.05 1.52 0.103778  -0.112433 -0.29914 -0.947562
1.05 1.56 0.0917491  -0.100336 -0.27402 -0.956476
1.05 1.6 0.080855  -0.0891369 -0.249716 -0.964208
1.05 1.64 0.0710268  -0.0788402 -0.226427 -0.970832
1.05 1.68 0.062194  -0.0694345 -0.20431 -0.976441
1.05 1.72 0.0542855  -0.0608969 -0.183484 -0.981135
1.05 1.76 0.0472313  -0.0531935 -0.164028 -0.985021
1.05 1.8 0.0409625  -0.0462824 -0.145984 -0.988204
1.05 1.84 0.0354122  -0.0401159 -0.129367 -0.990785
1.05 1.88 0.0305162  -0.0346419 -0.114162 -0.992858
1.05 1.92 0.0262131  -0.0298064 -0.100334 -0.994507
1.05 1.96 0.0224448  -0.0255549 -0.0878303 -0.995808
1.1 -1.96 0.021117  -0.0270666 0.0826681 -0.99621
1.1 -1.92 0.0246623  -0.0315734 0.0944487 -0.995029
1.1 -1.88 0.0287109  -0.0367011 0.107482 -0.993529
1.1 -1.84 0.0333173  -0.0425085 0.12182 -0.991641
1.1 -1.8 0.0385393  -0.0490542 0.1375 -0.989286
1.1 -1.76 0.0444372  -0.0563949 0.154538 -0.986376
1.1 -1.72 0.0510741  -0.0645837 0.172927 -0.982815
1.1 -1.68 0.0585147  -0.0736676 0.192632 -0.978502
1.1 -1.64 0.066825  -0.0836856 0.213584 -0.973334
1.1 -1.6 0.0760718  -0.0946658 0.235679 -0.967209
1.1 -1.56 0.0863214  -0.106624 0.258774 -0.960035
1.1 -1.52 0.0976391  -0.11956 0.282688 -0.951731
1.1 -1.48 0.110088  -0.133459 0.307203 -0.942239
1.1 -1.44 0.123727  -0.148288 0.332067 -0.931527
1.1 -1.4 0.138612  -0.163999 0.357002 -0.919594
1.1 -1.36 0.154791  -0.18053 0.381712 -0.90648
1.1 -1.32 0.172307  -0.197805 0.40589 -0.892259
1.1 -1.28 0.191192  -0.212457 0.417186 -0.883639
1.1 -1.2 0.233149  -0.256782 0.48304 -0.8371
1.1 -1.16 0.256231  -0.272661 0.491491 -0.827099
1.1 -1.12 0.280698  -0.2924 0.50886 -0.809669
1.1 -1.08 0.306518  -0.312408 0.524227 -0.792204
1.1 -1.04 0.333645  -0.332633 0.537459 -0.774915
1.1 -1 0.362012  -0.353034 0.548453 -0.758002
1.1 -0.96 0.391536  -0.373584 0.557134 -0.741645
1.1 -0.92 0.422115  -0.394264 0.563448 -0.726005
1.1 -0.88 0.453628  -0.415063 0.567357 -0.711216
1.1 -0.84 0.485936  -0.437352 0.565064 -0.69959
1.1 -0.8 0  0 0 -1
1.1 -0.76 0  0 0 -1
1.1 -0.72 0  0 0 -1
1.1 -0.68 0  0 0 -1
1.1 -0.64 0  0 0 -1
1.1 -0.6 0  0 0 -1
1.1 -0.56 0  0 0 -1
1.1 -0.52 0  0 0 -1
1.1 -0.48 0  0 0 -1
1.1 -0.44 0  0 0 -1
1.1 -0.4 0  0 0 -1
1.1 -0.36 0  0 0 -1
1.1 -0.32 0  0 0 -1
1.1 -0.28 0  0 0 -1
1.1 -0.24 0  0 0 -1
1.1 -0.2 0  0 0 -1
1.1 -0.16 0  0 0 -1
1.1 -0.12 0  0 0 -1
1.1 -0.08 0  0 0 -1
1.1 0 0  0 0 -1
1.1 0.04 0  0 0 -1
1.1 0.08 0  0 0 -1
1.1 0.12 0  0 0 -1
1.1 0.16 0  0 0 -1
1.1 0.2 0  0 0 -1
1.1 0.24 0  0 0 -1
1.1 0.28 0  0 0 -1
1.1 0.32 0  0 0 -1
1.1 0.36 0  0 0 -1
1.1 0.4 0  0 0 -1
1.1 0.44 0  0 0 -1
1.1 0.48 0  0 0 -1
1.1 0.52 0  0 0 -1
1.1 0.56 0  0 0 -1
1.1 0.6 0  0 0 -1
1.1 0.64 0  0 0 -1
1.1 0.68 0  0 0 -1
1.1 0.72 0  0 0 -1
1.1 0.76 0  0 0 -1
1.1 0.8 0  0 0 -1
1.1 0.84 0.485936  -0.437352 -0.565064 -0.69959
1.1 0.88 0.453628  -0.415063 -0.567357 -0.711216
1.1 0.92 0.422115  -0.394264 -0.563448 -0.726005
1.1 0.96 0.391536  -0.373584 -0.557134 -0.741645
1.1 1 0.362012  -0.353034 -0.548453 -0.758002
1.1 1.04 0.333645  -0.332633 -0.537459 -0.774915
1.1 1.08 0.306518  -0.312408 -0.524227 -0.792204
1.1 1.12 0.280698  -0.2924 -0.50886 -0.809669
1.1 1.16 0.256231  -0.265048 -0.503138 -0.822558
1.1 1.24 0.211469  -0.240858 -0.438836 -0.865685
1.1 1.28 0.191192  -0.215741 -0.429235 -0.877048
1.1 1.32 0.172307  -0.197805 -0.40589 -0.892259
1.1 1.36 0.154791  -0.18053 -0.381712 -0.90648
1.1 1.4 0.138612  -0.163999 -0.357002 -0.919594
1.1 1.44 0.123727  -0.148288 -0.332067 -0.931527
1.1 1.48 0.110088  -0.133459 -0.307203 -0.942239
1.1 1.52 0.0976391  -0.11956 -0.282688 -0.951731
1.1 1.56 0.0863214  -0.106624 -0.258774 -0.960035
1.1 1.6 0.0760718  -0.0946658 -0.235679 -0.967209
1.1 1.64 0.066825  -0.0836856 -0.213584 -0.973334
1.1 1.68 0.0585147  -0.0736676 -0.192632 -0.978502
1.1 1.72 0.0510741  -0.0645837 -0.172927 -0.982815
1.1 1.76 0.0444372  -0.0563949 -0.154538 -0.986376
1.1 1.8 0.0385393  -0.0490542 -0.1375 -0.989286
1.1 1.84 0.0333173  -0.0425085 -0.12182 -0.991641
1.1 1.88 0.0287109  -0.0367011 -0.107482 -0.993529
1.1 1.92 0.0246623  -0.0315734 -0.0944487 -0.995029
1.1 1.96 0.021117  -0.0270666 -0.0826681 -0.99621
1.15 -1.96 0.0197278  -0.0280402 0.0772617 -0.996616
1.15 -1.92 0.0230399  -0.0327132 0.0882828 -0.995558
1.15 -1.88 0.0268222  -0.0380319 0.100481 -0.994212
1.15 -1.84 0.0311256  -0.0440584 0.113907 -0.992514
1.15 -1.8 0.036004  -0.0508548 0.128599 -0.990392
1.15 -1.76 0.0415139  -0.0584819 0.144576 -0.987764
1.15 -1.72 0.0477142  -0.0669971 0.161837 -0.984541
1.15 -1.68 0.0546653  -0.0764522 0.180353 -0.980626
1.15 -1.64 0.062429  -0.0868911 0.200067 -0.975922
1.15 -1.6 0.0710675  -0.0983475 0.220889 -0.970328
1.15 -1.56 0.0806428  -0.110842 0.242691 -0.963751
1.15 -1.52 0.0912159  -0.12438 0.265312 -0.956106
1.15 -1.48 0.102846  -0.13895 0.288551 -0.947328
1.15 -1.44 0.115588  -0.154524 0.312177 -0.937373
1.15 -1.4 0.129493  -0.171055 0.33593 -0.926224
1.15 -1.36 0.144608  -0.18848 0.35953 -0.9139
1.15 -1.32 0.160972  -0.206721 0.382682 -0.900456
1.15 -1.28 0.178614  -0.224293 0.393273 -0.891644
1.15 -1.2 0.217811  -0.266821 0.457318 -0.848332
1.15 -1.16 0.239375  -0.286009 0.4651 -0.837783
1.15 -1.12 0.262232  -0.306936 0.481882 -0.820719
1.15 -1.08 0.286354  -0.328133 0.496726 -0.803488
1.15 -1.04 0.311696  -0.349529 0.509483 -0.786293
1.15 -1 0.338197  -0.371064 0.520038 -0.769332
1.15 -0.96 0.365779  -0.392694 0.528306 -0.752785
1.15 -0.92 0.394346  -0.41438 0.534223 -0.736814
1.15 -0.88 0.423786  -0.436096 0.537746 -0.721561
1.15 -0.84 0.453969  -0.459114 0.535099 -0.709143
1.15 -0.8 0  0 0 -1
1.15 -0.76 0  0 0 -1
1.15 -0.72 0  0 0 -1
1.15 -0.68 0  0 0 -1
1.15 -0.64 0  0 0 -1
1.15 -0.6 0  0 0 -1
1.15 -0.56 0  0 0 -1
1.15 -0.52 0  0 0 -1
1.15 -0.48 0  0 0 -1
1.15 -0.44 0  0 0 -1
1.15 -0.4 0  0 0 -1
1.15 -0.36 0  0 0 -1
1.15 -0.32 0  0 0 -1
1.15 -0.28 0  0 0 -1
1.15 -0.24 0  0 0 -1
1.15 -0.2 0  0 0 -1
1.15 -0.16 0  0 0 -1
1.15 -0.12 0  0 0 -1
1.15 -0.08 0  0 0 -1
1.15 -0.04 0  0 0 -1
1.15 0 0  0 0 -1
1.15 0.04 0  0 0 -1
1.15 0.08 0  0 0 -1
1.15 0.12 0  0 0 -1
1.15 0.16 0  0 0 -1
1.15 0.2 0  0 0 -1
1.15 0.24 0  0 0 -1
1.15 0.28 0  0 0 -1
1.15 0.32 0  0 0 -1
1.15 0.36 0  0 0 -1
1.15 0.4 0  0 0 -1
1.15 0.44 0  0 0 -1
1.15 0.48 0  0 0 -1
1.15 0.52 0  0 0 -1
1.15 0.56 0  0 0 -1
1.15 0.6 0  0 0 -1
1.15 0.64 0  0 0 -1
1.15 0.68 0  0 0 -1
1.15 0.72 0  0 0 -1
1.15 0.76 0  0 0 -1
1.15 0.8 0  0 0 -1
1.15 0.84 0.453969  -0.459114 -0.535099 -0.709143
1.15 0.88 0.423786  -0.436096 -0.537746 -0.721561
1.15 0.92 0.394346  -0.41438 -0.534223 -0.736814
1.15 0.96 0.365779  -0.392694 -0.528306 -0.752785
1.15 1 0.338197  -0.371064 -0.520038 -0.769332
1.15 1.04 0.311696  -0.349529 -0.509483 -0.786293
1.15 1.08 0.286354  -0.328133 -0.496726 -0.803488
1.15 1.12 0.262232  -0.306936 -0.481882 -0.820719
1.15 1.16 0.239375  -0.280915 -0.476165 -0.833279
1.15 1.24 0.197557  -0.249662 -0.414453 -0.875156
1.15 1.28 0.178614  -0.22569 -0.405093 -0.885982
1.15 1.32 0.160972  -0.2031 -0.395144 -0.895886
1.15 1.36 0.144608  -0.18848 -0.35953 -0.9139
1.15 1.4 0.129493  -0.171055 -0.33593 -0.926224
1.15 1.44 0.115588  -0.154524 -0.312177 -0.937373
1.15 1.48 0.102846  -0.13895 -0.288551 -0.947328
1.15 1.52 0.0912159  -0.12438 -0.265312 -0.956106
1.15 1.56 0.0806428  -0.110842 -0.242691 -0.963751
1.15 1.6 0.0710675  -0.0983475 -0.220889 -0.970328
1.15 1.64 0.062429  -0.0856243 -0.21032 -0.973876
1.15 1.68 0.0546653  -0.0764522 -0.180353 -0.980626
1.15 1.72 0.0477142  -0.0669971 -0.161837 -0.984541
1.15 1.76 0.0415139  -0.0584819 -0.144576 -0.987764
1.15 1.8 0.036004  -0.0508548 -0.128599 -0.990392
1.15 1.84 0.0311256  -0.0440584 -0.113907 -0.992514
1.15 1.88 0.0268222  -0.0380319 -0.100481 -0.994212
1.15 1.92 0.0230399  -0.0327132 -0.0882828 -0.995558
1.15 1.96 0.0197278  -0.0280402 -0.0772617 -0.996616
1.2 -1.96 0.0183034  -0.0285141 0.0717125 -0.997018
1.2 -1.92 0.0213764  -0.03327 0.081952 -0.996081
1.2 -1.88 0.0248856  -0.0386852 0.09329 -0.994887
1.2 -1.84 0.0288783  -0.0448239 0.105776 -0.993379
1.2 -1.8 0.0334044  -0.0517507 0.119448 -0.991491
1.2 -1.76 0.0385166  -0.0595295 0.134327 -0.989147
1.2 -1.72 0.0442692  -0.0682212 0.150417 -0.986266
1.2 -1.68 0.0507184  -0.0778817 0.167697 -0.982757
1.2 -1.64 0.0579215  -0.0885598 0.186121 -0.978528
1.2 -1.6 0.0659363  -0.100294 0.20561 -0.973481
1.2 -1.56 0.0748203  -0.113111 0.226055 -0.967525
1.2 -1.52 0.08463  -0.127022 0.247311 -0.960574
1.2 -1.48 0.0954201  -0.142021 0.2692 -0.952555
1.2 -1.44 0.107242  -0.158085 0.291511 -0.943414
1.2 -1.4 0.120144  -0.175171 0.314005 -0.933122
1.2 -1.36 0.134168  -0.193219 0.336418 -0.921677
1.2 -1.32 0.149349  -0.212151 0.358475 -0.909114
1.2 -1.28 0.165718  -0.232186 0.368384 -0.900213
1.2 -1.2 0.202085  -0.272762 0.430364 -0.860458
1.2 -1.16 0.222091  -0.294791 0.43756 -0.849494
1.2 -1.12 0.243299  -0.316655 0.453768 -0.832961
1.2 -1.08 0.265679  -0.338799 0.468123 -0.816135
1.2 -1.04 0.289192  -0.361134 0.480468 -0.799208
1.2 -1 0.313779  -0.383583 0.490674 -0.78237
1.2 -0.96 0.339369  -0.40608 0.498643 -0.765803
1.2 -0.92 0.365874  -0.428572 0.504303 -0.74967
1.2 -0.88 0.393188  -0.451012 0.507604 -0.734116
1.2 -0.84 0.421192  -0.474553 0.504821 -0.721079
1.2 -0.8 0  0 0 -1
1.2 -0.76 0  0 0 -1
1.2 -0.72 0  0 0 -1
1.2 -0.68 0  0 0 -1
1.2 -0.64 0  0 0 -1
1.2 -0.6 0  0 0 -1
1.2 -0.56 0  0 0 -1
1.2 -0.52 0  0 0 -1
1.2 -0.48 0  0 0 -1
1.2 -0.44 0  0 0 -1
1.2 -0.4 0  0 0 -1
1.2 -0.36 0  0 0 -1
1.2 -0.32 0  0 0 -1
1.2 -0.28 0  0 0 -1
1.2 -0.24 0  0 0 -1
1.2 -0.2 0  0 0 -1
1.2 -0.16 0  0 0 -1
1.2 -0.12 0  0 0 -1
1.2 -0.08 0  0 0 -1
1.2 -0.04 0  0 0 -1
1.2 0 0  0 0 -1
1.2 0.04 0  0 0 -1
1.2 0.08 0  0 0 -1
1.2 0.12 0  0 0 -1
1.2 0.16 0  0 0 -1
1.2 0.2 0  0 0 -1
1.2 0.24 0  0 0 -1
1.2 0.28 0  0 0 -1
1.2 0.32 0  0 0 -1
1.2 0.36 0  0 0 -1
1.2 0.4 0  0 0 -1
1.2 0.44 0  0 0 -1
1.2 0.48 0  0 0 -1
1.2 0.52 0  0 0 -1
1.2 0.56 0  0 0 -1
1.2 0.6 0  0 0 -1
1.2 0.64 0  0 0 -1
1.2 0.68 0  0 0 -1
1.2 0.72 0  0 0 -1
1.2 0.76 0  0 0 -1
1.2 0.8 0  0 0 -1
1.2 0.84 0.421192  -0.474553 -0.504821 -0.721079
1.2 0.88 0.393188  -0.451012 -0.507604 -0.734116
1.2 0.92 0.365874  -0.428572 -0.504303 -0.74967
1.2 0.96 0.339369  -0.40608 -0.498643 -0.765803
1.2 1 0.313779  -0.383583 -0.490674 -0.78237
1.2 1.04 0.289192  -0.361134 -0.480468 -0.799208
1.2 1.08 0.265679  -0.338799 -0.468123 -0.816135
1.2 1.12 0.243299  -0.316655 -0.453768 -0.832961
1.2 1.16 0.222091  -0.292079 -0.44799 -0.844982
1.2 1.24 0.183294  -0.254559 -0.389014 -0.885363
1.2 1.28 0.165718  -0.229815 -0.391498 -0.891019
1.2 1.36 0.134168  -0.194802 -0.324511 -0.925605
1.2 1.4 0.120144  -0.175171 -0.314005 -0.933122
1.2 1.44 0.107242  -0.158085 -0.291511 -0.943414
1.2 1.48 0.0954201  -0.142021 -0.2692 -0.952555
1.2 1.52 0.08463  -0.127022 -0.247311 -0.960574
1.2 1.56 0.0748203  -0.113111 -0.226055 -0.967525
1.2 1.6 0.0659363  -0.099683 -0.215737 -0.97135
1.2 1.68 0.0507184  -0.0783028 -0.158686 -0.984219
1.2 1.72 0.0442692  -0.0682212 -0.150417 -0.986266
1.2 1.76 0.0385166  -0.0595295 -0.134327 -0.989147
1.2 1.8 0.0334044  -0.0517507 -0.119448 -0.991491
1.2 1.84 0.0288783  -0.0448239 -0.105776 -0.993379
1.2 1.88 0.0248856  -0.0386852 -0.09329 -0.994887
1.2 1.92 0.0213764  -0.03327 -0.081952 -0.996081
1.2 1.96 0.0183034  -0.0285141 -0.0717125 -0.997018
1.25 -1.96 0.0168679  -0.0285339 0.0661138 -0.997404
1.25 -1.92 0.0196999  -0.0332971 0.075563 -0.996585
1.25 -1.88 0.0229338  -0.0387225 0.08603 -0.99554
1.25 -1.84 0.0266133  -0.0448755 0.0975627 -0.994217
1.25 -1.8 0.0307845  -0.0518223 0.110199 -0.992558
1.25 -1.76 0.0354957  -0.0596288 0.123961 -0.990494
1.25 -1.72 0.0407971  -0.0683586 0.138858 -0.98795
1.25 -1.68 0.0467405  -0.078071 0.154875 -0.984845
1.25 -1.64 0.0533787  -0.0888188 0.171974 -0.981089
1.25 -1.6 0.0607648  -0.100646 0.190093 -0.976594
1.25 -1.56 0.068952  -0.113583 0.209135 -0.971268
1.25 -1.52 0.0779924  -0.12765 0.228975 -0.965026
1.25 -1.48 0.0879362  -0.142846 0.249456 -0.957793
1.25 -1.44 0.098831  -0.159155 0.270388 -0.949505
1.25 -1.4 0.110721  -0.17654 0.291555 -0.940122
1.25 -1.36 0.123645  -0.194945 0.312714 -0.929627
1.25 -1.32 0.137636  -0.214298 0.333608 -0.918032
1.25 -1.28 0.152721  -0.236338 0.342869 -0.909167
1.25 -1.2 0.186235  -0.274813 0.402485 -0.873203
1.25 -1.16 0.204672  -0.299221 0.409184 -0.861995
1.25 -1.12 0.224216  -0.321774 0.424814 -0.846165
1.25 -1.08 0.244842  -0.344628 0.438703 -0.829922
1.25 -1.04 0.26651  -0.367681 0.45068 -0.813448
1.25 -1 0.289169  -0.390838 0.460606 -0.796924
1.25 -0.96 0.312752  -0.414014 0.468372 -0.780525
1.25 -0.92 0.337178  -0.437137 0.473896 -0.764417
1.25 -0.88 0.36235  -0.460143 0.477119 -0.74875
1.25 -0.84 0.388157  -0.484052 0.474393 -0.735286
1.25 -0.8 0  0 0 -1
1.25 -0.76 0  0 0 -1
1.25 -0.72 0  0 0 -1
1.25 -0.68 0  0 0 -1
1.25 -0.64 0  0 0 -1
1.25 -0.6 0  0 0 -1
1.25 -0.56 0  0 0 -1
1.25 -0.52 0  0 0 -1
1.25 -0.48 0  0 0 -1
1.25 -0.44 0  0 0 -1
1.25 -0.4 0  0 0 -1
1.25 -0.36 0  0 0 -1
1.25 -0.32 0  0 0 -1
1.25 -0.28 0  0 0 -1
1.25 -0.24 0  0 0 -1
1.25 -0.2 0  0 0 -1
1.25 -0.16 0  0 0 -1
1.25 -0.12 0  0 0 -1
1.25 -0.08 0  0 0 -1
1.25 -0.04 0  0 0 -1
1.25 0 0  0 0 -1
1.25 0.04 0  0 0 -1
1.25 0.08 0  0 0 -1
1.25 0.12 0  0 0 -1
1.25 0.16 0  0 0 -1
1.25 0.2 0  0 0 -1
1.25 0.24 0  0 0 -1
1.25 0.28 0  0 0 -1
1.25 0.32 0  0 0 -1
1.25 0.36 0  0 0 -1
1.25 0.4 0  0 0 -1
1.25 0.44 0  0 0 -1
1.25 0.48 0  0 0 -1
1.25 0.52 0  0 0 -1
1.25 0.56 0  0 0 -1
1.25 0.6 0  0 0 -1
1.25 0.64 0  0 0 -1
1.25 0.68 0  0 0 -1
1.25 0.72 0  0 0 -1
1.25 0.76 0  0 0 -1
1.25 0.8 0  0 0 -1
1.25 0.84 0.388157  -0.484052 -0.474393 -0.735286
1.25 0.88 0.36235  -0.460143 -0.477119 -0.74875
1.25 0.92 0.337178  -0.437137 -0.473896 -0.764417
1.25 0.96 0.312752  -0.414014 -0.468372 -0.780525
1.25 1 0.289169  -0.390838 -0.460606 -0.796924
1.25 1.04 0.26651  -0.367681 -0.45068 -0.813448
1.25 1.08 0.244842  -0.344628 -0.438703 -0.829922
1.25 1.12 0.224216  -0.321774 -0.424814 -0.846165
1.25 1.16 0.204672  -0.298722 -0.418952 -0.857464
1.25 1.32 0.137636  -0.21444 -0.322485 -0.921965
1.25 1.36 0.123645  -0.194945 -0.312714 -0.929627
1.25 1.4 0.110721  -0.17654 -0.291555 -0.940122
1.25 1.44 0.098831  -0.159155 -0.270388 -0.949505
1.25 1.48 0.0879362  -0.142846 -0.249456 -0.957793
1.25 1.52 0.0779924  -0.12765 -0.228975 -0.965026
1.25 1.56 0.068952  -0.113583 -0.209135 -0.971268
1.25 1.6 0.0607648  -0.100646 -0.190093 -0.976594
1.25 1.64 0.0533787  -0.0886371 -0.163071 -0.982625
1.25 1.68 0.0467405  -0.078071 -0.154875 -0.984845
1.25 1.72 0.0407971  -0.0683586 -0.138858 -0.98795
1.25 1.76 0.0354957  -0.0596288 -0.123961 -0.990494
1.25 1.8 0.0307845  -0.0518223 -0.110199 -0.992558
1.25 1.84 0.0266133  -0.0448755 -0.0975627 -0.994217
1.25 1.88 0.0229338  -0.0387225 -0.08603 -0.99554
1.25 1.92 0.0196999  -0.0332971 -0.075563 -0.996585
1.25 1.96 0.0168679  -0.0285339 -0.0661138 -0.997404
1.3 -1.96 0.0154426  -0.028151 0.0605498 -0.997768
1.3 -1.92 0.0180353  -0.032854 0.0692116 -0.997061
1.3 -1.88 0.020996  -0.0382126 0.0788101 -0.996157
1.3 -1.84 0.0243646  -0.0442925 0.0893911 -0.995011
1.3 -1.8 0.0281834  -0.0511604 0.100991 -0.993571
1.3 -1.76 0.0324965  -0.0588833 0.113635 -0.991776
1.3 -1.72 0.03735  -0.0675264 0.127333 -0.989559
1.3 -1.68 0.0427912  -0.0771516 0.142078 -0.986844
1.3 -1.64 0.0488684  -0.0878148 0.157841 -0.983552
1.3 -1.6 0.0556305  -0.0995642 0.174569 -0.979598
1.3 -1.56 0.0631259  -0.112437 0.192182 -0.974897
1.3 -1.52 0.0714024  -0.126457 0.210574 -0.969364
1.3 -1.48 0.080506  -0.141632 0.229606 -0.962923
1.3 -1.44 0.0904803  -0.157953 0.249112 -0.955507
1.3 -1.4 0.101365  -0.175392 0.268897 -0.947065
1.3 -1.36 0.113197  -0.1939 0.288743 -0.937566
1.3 -1.32 0.126006  -0.21341 0.308412 -0.927005
1.3 -1.28 0.139817  -0.237001 0.317057 -0.918317
1.3 -1.2 0.170499  -0.27323 0.373991 -0.886271
1.3 -1.16 0.187379  -0.299554 0.380277 -0.875018
1.3 -1.12 0.205271  -0.322546 0.395311 -0.860054
1.3 -1.08 0.224154  -0.345877 0.408732 -0.844575
1.3 -1.04 0.243991  -0.369429 0.420364 -0.828744
1.3 -1 0.264736  -0.393092 0.430056 -0.81273
1.3 -0.96 0.286326  -0.416766 0.437688 -0.796703
1.3 -0.92 0.308688  -0.440359 0.443168 -0.780824
1.3 -0.88 0.331733  -0.463791 0.446429 -0.765245
1.3 -0.84 0.35536  -0.487939 0.443924 -0.751563
1.3 -0.8 0  0 0 -1
1.3 -0.76 0  0 0 -1
1.3 -0.72 0  0 0 -1
1.3 -0.68 0  0 0 -1
1.3 -0.64 0  0 0 -1
1.3 -0.6 0  0 0 -1
1.3 -0.56 0  0 0 -1
1.3 -0.52 0  0 0 -1
1.3 -0.48 0  0 0 -1
1.3 -0.44 0  0 0 -1
1.3 -0.4 0  0 0 -1
1.3 -0.36 0  0 0 -1
1.3 -0.32 0  0 0 -1
1.3 -0.24 0  0 0 -1
1.3 -0.2 0  0 0 -1
1.3 -0.16 0  0 0 -1
1.3 -0.12 0  0 0 -1
1.3 -0.08 0  0 0 -1
1.3 -0.04 0  0 0 -1
1.3 0 0  0 0 -1
1.3 0.04 0  0 0 -1
1.3 0.08 0  0 0 -1
1.3 0.12 0  0 0 -1
1.3 0.16 0  0 0 -1
1.3 0.2 0  0 0 -1
1.3 0.24 0  0 0 -1
1.3 0.28 0  0 0 -1
1.3 0.32 0  0 0 -1
1.3 0.36 0  0 0 -1
1.3 0.4 0  0 0 -1
1.3 0.44 0  0 0 -1
1.3 0.48 0  0 0 -1
1.3 0.52 0  0 0 -1
1.3 0.56 0  0 0 -1
1.3 0.6 0  0 0 -1
1.3 0.64 0  0 0 -1
1.3 0.68 0  0 0 -1
1.3 0.72 0  0 0 -1
1.3 0.76 0  0 0 -1
1.3 0.8 0  0 0 -1
1.3 0.84 0.35536  -0.487939 -0.443924 -0.751563
1.3 0.88 0.331733  -0.463791 -0.446429 -0.765245
1.3 0.92 0.308688  -0.440359 -0.443168 -0.780824
1.3 0.96 0.286326  -0.416766 -0.437688 -0.796703
1.3 1 0.264736  -0.393092 -0.430056 -0.81273
1.3 1.04 0.243991  -0.369429 -0.420364 -0.828744
1.3 1.08 0.224154  -0.345877 -0.408732 -0.844575
1.3 1.12 0.205271  -0.322546 -0.395311 -0.860054
1.3 1.16 0.187379  -0.301078 -0.389376 -0.870482
1.3 1.24 0.154645  -0.253616 -0.336228 -0.906989
1.3 1.28 0.139817  -0.232426 -0.317417 -0.919361
1.3 1.32 0.126006  -0.21341 -0.308412 -0.927005
1.3 1.36 0.113197  -0.1939 -0.288743 -0.937566
1.3 1.4 0.101365  -0.175392 -0.268897 -0.947065
1.3 1.44 0.0904803  -0.157953 -0.249112 -0.955507
1.3 1.48 0.080506  -0.141632 -0.229606 -0.962923
1.3 1.52 0.0714024  -0.126457 -0.210574 -0.969364
1.3 1.56 0.0631259  -0.112437 -0.192182 -0.974897
1.3 1.6 0.0556305  -0.0995642 -0.174569 -0.979598
1.3 1.64 0.0488684  -0.0878148 -0.157841 -0.983552
1.3 1.68 0.0427912  -0.0771516 -0.142078 -0.986844
1.3 1.72 0.03735  -0.0675264 -0.127333 -0.989559
1.3 1.76 0.0324965  -0.0588833 -0.113635 -0.991776
1.3 1.8 0.0281834  -0.0511604 -0.100991 -0.993571
1.3 1.84 0.0243646  -0.0442925 -0.0893911 -0.995011
1.3 1.88 0.020996  -0.0382126 -0.0788101 -0.996157
1.3 1.92 0.0180353  -0.032854 -0.0692116 -0.997061
1.3 1.96 0.0154426  -0.028151 -0.0605498 -0.997768
1.35 -1.96 0.0140465  -0.0274202 0.0550943 -0.998105
1.35 -1.92 0.0164048  -0.0320045 0.0629823 -0.997501
1.35 -1.88 0.0190978  -0.0372295 0.0717265 -0.996729
1.35 -1.84 0.0221618  -0.0431601 0.0813701 -0.995749
1.35 -1.8 0.0256353  -0.0498629 0.0919484 -0.994515
1.35 -1.76 0.0295585  -0.0574046 0.103487 -0.992973
1.35 -1.72 0.0339732  -0.0658514 0.115999 -0.991064
1.35 -1.68 0.0389225  -0.0752664 0.12948 -0.988721
1.35 -1.64 0.0444503  -0.0857081 0.143911 -0.985872
1.35 -1.6 0.050601  -0.0972279 0.159249 -0.982439
1.35 -1.56 0.0574188  -0.109868 0.175428 -0.978343
1.35 -1.52 0.064947  -0.123658 0.192357 -0.973503
1.35 -1.48 0.0732276  -0.138613 0.209919 -0.967843
1.35 -1.44 0.0823001  -0.154732 0.227967 -0.961295
1.35 -1.4 0.0922011  -0.171996 0.246331 -0.953802
1.35 -1.36 0.102963  -0.1939 0.254883 -0.947332
1.35 -1.32 0.114614  -0.209778 0.283207 -0.935835
1.35 -1.28 0.127176  -0.234474 0.291264 -0.927463
1.35 -1.2 0.155085  -0.268316 0.345202 -0.899357
1.35 -1.16 0.170438  -0.296094 0.351143 -0.888272
1.35 -1.12 0.186713  -0.319273 0.365543 -0.874324
1.35 -1.08 0.203888  -0.34284 0.378477 -0.859777
1.35 -1.04 0.221932  -0.366667 0.38976 -0.844774
1.35 -1 0.240801  -0.390632 0.399236 -0.829468
1.35 -0.96 0.26044  -0.414619 0.406774 -0.814019
1.35 -0.92 0.28078  -0.438521 0.412272 -0.798581
1.35 -0.88 0.301742  -0.462241 0.415653 -0.783304
1.35 -0.84 0.323233  -0.486514 0.413495 -0.769627
1.35 -0.8 0  0 0 -1
1.35 -0.76 0  0 0 -1
1.35 -0.72 0  0 0 -1
1.35 -0.68 0  0 0 -1
1.35 -0.64 0  0 0 -1
1.35 -0.6 0  0 0 -1
1.35 -0.56 0  0 0 -1
1.35 -0.52 0  0 0 -1
1.35 -0.48 0  0 0 -1
1.35 -0.44 0  0 0 -1
1.35 -0.4 0  0 0 -1
1.35 -0.36 0  0 0 -1
1.35 -0.32 0  0 0 -1
1.35 -0.28 0  0 0 -1
1.35 -0.24 0  0 0 -1
1.35 -0.2 0  0 0 -1
1.35 -0.16 0  0 0 -1
1.35 -0.12 0  0 0 -1
1.35 -0.08 0  0 0 -1
1.35 -0.04 0  0 0 -1
1.35 0 0  0 0 -1
1.35 0.04 0  0 0 -1
1.35 0.08 0  0 0 -1
1.35 0.12 0  0 0 -1
1.35 0.16 0  0 0 -1
1.35 0.2 0  0 0 -1
1.35 0.24 0  0 0 -1
1.35 0.28 0  0 0 -1
1.35 0.32 0  0 0 -1
1.35 0.36 0  0 0 -1
1.35 0.4 0  0 0 -1
1.35 0.44 0  0 0 -1
1.35 0.48 0  0 0 -1
1.35 0.52 0  0 0 -1
1.35 0.56 0  0 0 -1
1.35 0.6 0  0 0 -1
1.35 0.64 0  0 0 -1
1.35 0.68 0  0 0 -1
1.35 0.72 0  0 0 -1
1.35 0.76 0  0 0 -1
1.35 0.8 0  0 0 -1
1.35 0.84 0.323233  -0.486514 -0.413495 -0.769627
1.35 0.88 0.301742  -0.462241 -0.415653 -0.783304
1.35 0.92 0.28078  -0.438521 -0.412272 -0.798581
1.35 0.96 0.26044  -0.414619 -0.406774 -0.814019
1.35 1 0.240801  -0.390632 -0.399236 -0.829468
1.35 1.04 0.221932  -0.366667 -0.38976 -0.844774
1.35 1.08 0.203888  -0.34284 -0.378477 -0.859777
1.35 1.12 0.186713  -0.319273 -0.365543 -0.874324
1.35 1.16 0.170438  -0.299431 -0.359578 -0.883767
1.35 1.24 0.140664  -0.248379 -0.309504 -0.917886
1.35 1.28 0.127176  -0.23016 -0.301274 -0.925343
1.35 1.32 0.114614  -0.209778 -0.283207 -0.935835
1.35 1.36 0.102963  -0.190364 -0.264816 -0.945322
1.35 1.4 0.0922011  -0.171996 -0.246331 -0.953802
1.35 1.44 0.0823001  -0.154732 -0.227967 -0.961295
1.35 1.48 0.0732276  -0.138613 -0.209919 -0.967843
1.35 1.52 0.064947  -0.123658 -0.192357 -0.973503
1.35 1.56 0.0574188  -0.109868 -0.175428 -0.978343
1.35 1.6 0.050601  -0.0972279 -0.159249 -0.982439
1.35 1.64 0.0444503  -0.0857081 -0.143911 -0.985872
1.35 1.68 0.0389225  -0.0752664 -0.12948 -0.988721
1.35 1.72 0.0339732  -0.0658514 -0.115999 -0.991064
1.35 1.76 0.0295585  -0.0574046 -0.103487 -0.992973
1.35 1.8 0.0256353  -0.0498629 -0.0919484 -0.994515
1.35 1.84 0.0221618  -0.0431601 -0.0813701 -0.995749
1.35 1.88 0.0190978  -0.0372295 -0.0717265 -0.996729
1.35 1.92 0.0164048  -0.0320045 -0.0629823 -0.997501
1.35 1.96 0.0140465  -0.0274202 -0.0550943 -0.998105
1.4 -1.96 0.0126954  -0.026398 0.0498104 -0.99841
1.4 -1.92 0.0148269  -0.0308143 0.0569473 -0.997902
1.4 -1.88 0.0172608  -0.0358493 0.0648615 -0.99725
1.4 -1.84 0.0200302  -0.0415664 0.0735934 -0.996422
1.4 -1.8 0.0231696  -0.0480308 0.0831767 -0.995377
1.4 -1.76 0.0267154  -0.0553086 0.0936368 -0.994069
1.4 -1.72 0.0307054  -0.0634654 0.104988 -0.992446
1.4 -1.68 0.0351787  -0.0725648 0.117232 -0.99045
1.4 -1.64 0.0401748  -0.0826668 0.130353 -0.988015
1.4 -1.6 0.0457339  -0.0938253 0.144319 -0.985073
1.4 -1.56 0.0518959  -0.106086 0.159076 -0.98155
1.4 -1.52 0.0587  -0.119484 0.174549 -0.977372
1.4 -1.48 0.0661841  -0.134042 0.190637 -0.972466
1.4 -1.44 0.0743839  -0.149765 0.207215 -0.966764
1.4 -1.4 0.0833326  -0.170555 0.215121 -0.961579
1.4 -1.32 0.10359  -0.198921 0.267595 -0.942774
1.4 -1.28 0.114943  -0.229096 0.265789 -0.936414
1.4 -1.2 0.140168  -0.260421 0.316442 -0.912165
1.4 -1.16 0.154044  -0.289194 0.322084 -0.901459
1.4 -1.12 0.168754  -0.312305 0.335802 -0.888652
1.4 -1.08 0.184277  -0.335863 0.348207 -0.875184
1.4 -1.04 0.200585  -0.359733 0.359115 -0.861178
1.4 -1 0.217639  -0.383784 0.368364 -0.846769
1.4 -0.96 0.235389  -0.407889 0.375816 -0.832099
1.4 -0.92 0.253773  -0.431927 0.38136 -0.817315
1.4 -0.88 0.272718  -0.455789 0.384909 -0.80256
1.4 -0.84 0.292142  -0.480067 0.383186 -0.789116
1.4 -0.8 0  0 0 -1
1.4 -0.76 0  0 0 -1
1.4 -0.72 0  0 0 -1
1.4 -0.68 0  0 0 -1
1.4 -0.64 0  0 0 -1
1.4 -0.6 0  0 0 -1
1.4 -0.56 0  0 0 -1
1.4 -0.52 0  0 0 -1
1.4 -0.48 0  0 0 -1
1.4 -0.44 0  0 0 -1
1.4 -0.4 0  0 0 -1
1.4 -0.36 0  0 0 -1
1.4 -0.32 0  0 0 -1
1.4 -0.28 0  0 0 -1
1.4 -0.24 0  0 0 -1
1.4 -0.2 0  0 0 -1
1.4 -0.16 0  0 0 -1
1.4 -0.12 0  0 0 -1
1.4 -0.08 0  0 0 -1
1.4 -0.04 0  0 0 -1
1.4 0 0  0 0 -1
1.4 0.04 0  0 0 -1
1.4 0.08 0  0 0 -1
1.4 0.12 0  0 0 -1
1.4 0.16 0  0 0 -1
1.4 0.2 0  0 0 -1
1.4 0.24 0  0 0 -1
1.4 0.28 0  0 0 -1
1.4 0.32 0  0 0 -1
1.4 0.36 0  0 0 -1
1.4 0.4 0  0 0 -1
1.4 0.44 0  0 0 -1
1.4 0.48 0  0 0 -1
1.4 0.52 0  0 0 -1
1.4 0.56 0  0 0 -1
1.4 0.6 0  0 0 -1
1.4 0.64 0  0 0 -1
1.4 0.68 0  0 0 -1
1.4 0.72 0  0 0 -1
1.4 0.76 0  0 0 -1
1.4 0.8 0  0 0 -1
1.4 0.84 0.292142  -0.480067 -0.383186 -0.789116
1.4 0.88 0.272718  -0.455789 -0.384909 -0.80256
1.4 0.92 0.253773  -0.431927 -0.38136 -0.817315
1.4 0.96 0.235389  -0.407889 -0.375816 -0.832099
1.4 1 0.217639  -0.383784 -0.368364 -0.846769
1.4 1.04 0.200585  -0.359733 -0.359115 -0.861178
1.4 1.08 0.184277  -0.335863 -0.348207 -0.875184
1.4 1.12 0.168754  -0.312305 -0.335802 -0.888652
1.4 1.16 0.154044  -0.294119 -0.329872 -0.897039
1.4 1.24 0.127134  -0.240436 -0.28297 -0.928503
1.4 1.28 0.114943  -0.223818 -0.275139 -0.934989
1.4 1.32 0.10359  -0.203729 -0.258298 -0.944339
1.4 1.36 0.0930596  -0.184648 -0.241227 -0.952741
1.4 1.4 0.0833326  -0.166643 -0.224136 -0.960205
1.4 1.44 0.0743839  -0.149765 -0.207215 -0.966764
1.4 1.48 0.0661841  -0.134042 -0.190637 -0.972466
1.4 1.52 0.0587  -0.119484 -0.174549 -0.977372
1.4 1.56 0.0518959  -0.106086 -0.159076 -0.98155
1.4 1.6 0.0457339  -0.0938253 -0.144319 -0.985073
1.4 1.64 0.0401748  -0.0826668 -0.130353 -0.988015
1.4 1.68 0.0351787  -0.0725648 -0.117232 -0.99045
1.4 1.72 0.0307054  -0.0634654 -0.104988 -0.992446
1.4 1.76 0.0267154  -0.0553086 -0.0936368 -0.994069
1.4 1.8 0.0231696  -0.0480308 -0.0831767 -0.995377
1.4 1.84 0.0200302  -0.0415664 -0.0735934 -0.996422
1.4 1.88 0.0172608  -0.0358493 -0.0648615 -0.99725
1.4 1.92 0.0148269  -0.0308143 -0.0569473 -0.997902
1.4 1.96 0.0126954  -0.026398 -0.0498104 -0.99841
1.45 -1.96 0.0114025  -0.0251404 0.0447499 -0.998682
1.45 -1.92 0.0133169  -0.0293488 0.0511662 -0.998259
1.45 -1.88 0.015503  -0.0341481 0.0582833 -0.997716
1.45 -1.84 0.0179903  -0.0395994 0.0661388 -0.997024
1.45 -1.8 0.0208099  -0.0457658 0.0747643 -0.99615
1.45 -1.76 0.0239947  -0.0527116 0.0841846 -0.995055
1.45 -1.72 0.0275784  -0.0605013 0.094415 -0.993693
1.45 -1.68 0.031596  -0.0691981 0.10546 -0.992013
1.45 -1.64 0.0360833  -0.078862 0.117309 -0.989959
1.45 -1.6 0.0410763  -0.0895485 0.129938 -0.98747
1.45 -1.56 0.0466107  -0.101306 0.143304 -0.98448
1.45 -1.52 0.0527219  -0.114174 0.157344 -0.980922
1.45 -1.48 0.0594438  -0.12818 0.171974 -0.976727
1.45 -1.44 0.0668086  -0.143338 0.18709 -0.971829
1.45 -1.4 0.0748459  -0.159646 0.202563 -0.966168
1.45 -1.36 0.0835822  -0.172085 0.22667 -0.958649
1.45 -1.32 0.0930402  -0.195617 0.233967 -0.952362
1.45 -1.28 0.103237  -0.221242 0.240909 -0.944995
1.45 -1.2 0.125893  -0.249943 0.288035 -0.924426
1.45 -1.16 0.138356  -0.279257 0.293405 -0.914292
1.45 -1.12 0.151568  -0.302047 0.306381 -0.902717
1.45 -1.08 0.16551  -0.325345 0.318203 -0.890448
1.45 -1.04 0.180157  -0.349017 0.32869 -0.877582
1.45 -1 0.195475  -0.372926 0.337676 -0.864234
1.45 -0.96 0.211417  -0.396939 0.345021 -0.850529
1.45 -0.92 0.227928  -0.420925 0.350605 -0.836599
1.45 -0.88 0.244944  -0.444761 0.354334 -0.822578
1.45 -0.84 0.26239  -0.495736 -0.135229 -0.85788
1.45 -0.8 0  0 0 -1
1.45 -0.76 0  0 0 -1
1.45 -0.72 0  0 0 -1
1.45 -0.68 0  0 0 -1
1.45 -0.64 0  0 0 -1
1.45 -0.6 0  0 0 -1
1.45 -0.56 0  0 0 -1
1.45 -0.52 0  0 0 -1
1.45 -0.48 0  0 0 -1
1.45 -0.44 0  0 0 -1
1.45 -0.4 0  0 0 -1
1.45 -0.36 0  0 0 -1
1.45 -0.32 0  0 0 -1
1.45 -0.28 0  0 0 -1
1.45 -0.24 0  0 0 -1
1.45 -0.2 0  0 0 -1
1.45 -0.16 0  0 0 -1
1.45 -0.12 0  0 0 -1
1.45 -0.08 0  0 0 -1
1.45 -0.04 0  0 0 -1
1.45 0 0  0 0 -1
1.45 0.04 0  0 0 -1
1.45 0.08 0  0 0 -1
1.45 0.12 0  0 0 -1
1.45 0.16 0  0 0 -1
1.45 0.2 0  0 0 -1
1.45 0.24 0  0 0 -1
1.45 0.28 0  0 0 -1
1.45 0.32 0  0 0 -1
1.45 0.36 0  0 0 -1
1.45 0.4 0  0 0 -1
1.45 0.44 0  0 0 -1
1.45 0.52 0  0 0 -1
1.45 0.56 0  0 0 -1
1.45 0.6 0  0 0 -1
1.45 0.64 0  0 0 -1
1.45 0.68 0  0 0 -1
1.45 0.72 0  0 0 -1
1.45 0.76 0  0 0 -1
1.45 0.8 0  0 0 -1
1.45 0.84 0.26239  -0.495736 0.135229 -0.85788
1.45 0.88 0.244944  -0.444761 -0.354334 -0.822578
1.45 0.92 0.227928  -0.420925 -0.350605 -0.836599
1.45 0.96 0.211417  -0.396939 -0.345021 -0.850529
1.45 1 0.195475  -0.372926 -0.337676 -0.864234
1.45 1.04 0.180157  -0.349017 -0.32869 -0.877582
1.45 1.08 0.16551  -0.325345 -0.318203 -0.890448
1.45 1.12 0.151568  -0.302047 -0.306381 -0.902717
1.45 1.16 0.138356  -0.285529 -0.300565 -0.910019
1.45 1.24 0.114186  -0.230182 -0.256921 -0.93862
1.45 1.28 0.103237  -0.215184 -0.249545 -0.944152
1.45 1.32 0.0930402  -0.195617 -0.233967 -0.952362
1.45 1.36 0.0835822  -0.177085 -0.218245 -0.959693
1.45 1.4 0.0748459  -0.159646 -0.202563 -0.966168
1.45 1.44 0.0668086  -0.143338 -0.18709 -0.971829
1.45 1.48 0.0594438  -0.12818 -0.171974 -0.976727
1.45 1.52 0.0527219  -0.114174 -0.157344 -0.980922
1.45 1.56 0.0466107  -0.101306 -0.143304 -0.98448
1.45 1.6 0.0410763  -0.0895485 -0.129938 -0.98747
1.45 1.64 0.0360833  -0.0809327 -0.123456 -0.989044
1.45 1.68 0.031596  -0.0691981 -0.10546 -0.992013
1.45 1.72 0.0275784  -0.0605013 -0.094415 -0.993693
1.45 1.76 0.0239947  -0.0527116 -0.0841846 -0.995055
1.45 1.8 0.0208099  -0.0457658 -0.0747643 -0.99615
1.45 1.84 0.0179903  -0.0395994 -0.0661388 -0.997024
1.45 1.88 0.015503  -0.0341481 -0.0582833 -0.997716
1.45 1.92 0.0133169  -0.0293488 -0.0511662 -0.998259
1.45 1.96 0.0114025  -0.0251404 -0.0447499 -0.998682
1.5 -1.96 0.010178  -0.0237019 0.0399541 -0.99892
1.5 -1.92 0.0118868  -0.0276716 0.0456862 -0.998573
1.5 -1.88 0.0138382  -0.0321997 0.0520462 -0.998125
1.5 -1.84 0.0160584  -0.0385492 0.0553788 -0.997721
1.5 -1.8 0.0185753  -0.0431664 0.0667819 -0.996833
1.5 -1.76 0.021418  -0.0497272 0.0752108 -0.995927
1.5 -1.72 0.0246169  -0.0570893 0.0843706 -0.994798
1.5 -1.68 0.0282031  -0.0653143 0.0942674 -0.993402
1.5 -1.64 0.0322086  -0.0744619 0.104896 -0.991692
1.5 -1.6 0.0366654  -0.0845875 0.116238 -0.989613
1.5 -1.56 0.0416055  -0.0957414 0.128258 -0.987109
1.5 -1.52 0.0470604  -0.107966 0.140907 -0.984118
1.5 -1.48 0.0530605  -0.121293 0.154115 -0.98058
1.5 -1.44 0.0596344  -0.135743 0.167793 -0.976432
1.5 -1.4 0.0668087  -0.151323 0.181833 -0.971616
1.5 -1.36 0.0746069  -0.168022 0.196108 -0.96608
1.5 -1.32 0.0830492  -0.185814 0.210472 -0.959778
1.5 -1.28 0.0921514  -0.211312 0.216873 -0.953055
1.5 -1.2 0.112374  -0.237315 0.260298 -0.935909
1.5 -1.16 0.123499  -0.266728 0.265401 -0.926509
1.5 -1.12 0.135292  -0.288949 0.277575 -0.916221
1.5 -1.08 0.147737  -0.31174 0.288752 -0.90523
1.5 -1.04 0.160811  -0.334968 0.298755 -0.893611
1.5 -1 0.174484  -0.358499 0.307425 -0.881458
1.5 -0.96 0.188714  -0.382194 0.314616 -0.868875
1.5 -0.92 0.203453  -0.405919 0.320207 -0.855977
1.5 -0.88 0.218641  -0.429543 0.324094 -0.842886
1.5 -0.84 0.234213  -0.414697 -0.500971 -0.759641
1.5 -0.8 0  0.262233 -0.777926 -0.57102
1.5 -0.76 0  0 0 -1
1.5 -0.72 0  0 0 -1
1.5 -0.68 0  0 0 -1
1.5 -0.64 0  0 0 -1
1.5 -0.6 0  0 0 -1
1.5 -0.56 0  0 0 -1
1.5 -0.52 0  0 0 -1
1.5 -0.48 0  0 0 -1
1.5 -0.44 0  0 0 -1
1.5 -0.4 0  0 0 -1
1.5 -0.36 0  0 0 -1
1.5 -0.32 0  0 0 -1
1.5 -0.28 0  0 0 -1
1.5 -0.24 0  0 0 -1
1.5 -0.2 0  0 0 -1
1.5 -0.16 0  0 0 -1
1.5 -0.12 0  0 0 -1
1.5 -0.08 0  0 0 -1
1.5 -0.04 0  0 0 -1
1.5 0 0  0 0 -1
1.5 0.04 0  0 0 -1
1.5 0.08 0  0 0 -1
1.5 0.12 0  0 0 -1
1.5 0.16 0  0 0 -1
1.5 0.2 0  0 0 -1
1.5 0.24 0  0 0 -1
1.5 0.28 0  0 0 -1
1.5 0.32 0  0 0 -1
1.5 0.36 0  0 0 -1
1.5 0.4 0  0 0 -1
1.5 0.44 0  0 0 -1
1.5 0.52 0  0 0 -1
1.5 0.56 0  0 0 -1
1.5 0.6 0  0 0 -1
1.5 0.64 0  0 0 -1
1.5 0.68 0  0 0 -1
1.5 0.72 0  0 0 -1
1.5 0.76 0  0 0 -1
1.5 0.8 0  0.262233 0.777926 -0.57102
1.5 0.84 0.234213  -0.414697 0.500971 -0.759641
1.5 0.88 0.218641  -0.429543 -0.324094 -0.842886
1.5 0.92 0.203453  -0.405919 -0.320207 -0.855977
1.5 0.96 0.188714  -0.382194 -0.314616 -0.868875
1.5 1 0.174484  -0.358499 -0.307425 -0.881458
1.5 1.04 0.160811  -0.334968 -0.298755 -0.893611
1.5 1.08 0.147737  -0.31174 -0.288752 -0.90523
1.5 1.12 0.135292  -0.288949 -0.277575 -0.916221
1.5 1.16 0.123499  -0.2741 -0.271953 -0.922448
1.5 1.24 0.101925  -0.21804 -0.231636 -0.948052
1.5 1.28 0.0921514  -0.204653 -0.224763 -0.95268
1.5 1.32 0.0830492  -0.185814 -0.210472 -0.959778
1.5 1.36 0.0746069  -0.168022 -0.196108 -0.96608
1.5 1.4 0.0668087  -0.151323 -0.181833 -0.971616
1.5 1.44 0.0596344  -0.135743 -0.167793 -0.976432
1.5 1.48 0.0530605  -0.121293 -0.154115 -0.98058
1.5 1.52 0.0470604  -0.107966 -0.140907 -0.984118
1.5 1.56 0.0416055  -0.0957414 -0.128258 -0.987109
1.5 1.6 0.0366654  -0.0872196 -0.122105 -0.988677
1.5 1.68 0.0282031  -0.0632577 -0.0891188 -0.99401
1.5 1.72 0.0246169  -0.0570893 -0.0843706 -0.994798
1.5 1.76 0.021418  -0.0497272 -0.0752108 -0.995927
1.5 1.8 0.0185753  -0.0431664 -0.0667819 -0.996833
1.5 1.84 0.0160584  -0.0373445 -0.0590682 -0.997555
1.5 1.88 0.0138382  -0.0321997 -0.0520462 -0.998125
1.5 1.92 0.0118868  -0.0276716 -0.0456862 -0.998573
1.5 1.96 0.010178  -0.0237019 -0.0399541 -0.99892
1.55 -1.96 0.00902973  -0.0221338 0.0354537 -0.999126
1.55 -1.92 0.0105457  -0.0258426 0.0405429 -0.998844
1.55 -1.88 0.0122769  -0.0311808 0.0432183 -0.998579
1.55 -1.8 0.0164796  -0.03884 0.0628776 -0.997265
1.55 -1.76 0.0190016  -0.0464631 0.0667764 -0.996686
1.55 -1.72 0.0218395  -0.0533529 0.0749245 -0.995761
1.55 -1.68 0.0250212  -0.0610551 0.0837346 -0.994616
1.55 -1.64 0.0285747  -0.0696276 0.0932044 -0.993209
1.55 -1.6 0.0325287  -0.0791253 0.10332 -0.991496
1.55 -1.56 0.0369115  -0.0895986 0.114056 -0.989426
1.55 -1.52 0.041751  -0.101092 0.12537 -0.986946
1.55 -1.48 0.0470741  -0.11364 0.137206 -0.984002
1.55 -1.44 0.0529063  -0.127269 0.14949 -0.980538
1.55 -1.4 0.0592711  -0.141992 0.162131 -0.9765
1.55 -1.36 0.0661895  -0.157808 0.175022 -0.971835
1.55 -1.32 0.0736793  -0.174699 0.188036 -0.9665
1.55 -1.28 0.0817546  -0.199717 0.193903 -0.960476
1.55 -1.2 0.0996957  -0.222992 0.233528 -0.946435
1.55 -1.16 0.109565  -0.252087 0.238354 -0.937891
1.55 -1.12 0.120028  -0.273507 0.24967 -0.928902
1.55 -1.08 0.131069  -0.295551 0.260138 -0.919227
1.55 -1.04 0.142668  -0.318094 0.269592 -0.90892
1.55 -1 0.154798  -0.341005 0.277877 -0.898053
1.55 -0.96 0.167423  -0.36415 0.284852 -0.88671
1.55 -0.92 0.180499  -0.38739 0.29039 -0.874987
1.55 -0.88 0.193974  -0.410592 0.294387 -0.862989
1.55 -0.84 0.207789  -0.433625 0.296757 -0.850826
1.55 -0.8 0.221877  -0.44305 0.299675 -0.844927
1.55 -0.76 0.236163  -0.465089 0.298834 -0.833301
1.55 -0.72 0.250566  -0.486663 0.29622 -0.821835
1.55 -0.68 0.264998  -0.507672 0.291823 -0.810622
1.55 -0.64 0.279366  -0.528019 0.285648 -0.79975
1.55 -0.6 0.293572  -0.547617 0.277718 -0.789296
1.55 -0.56 0.307515  -0.56638 0.26807 -0.779328
1.55 -0.52 0.32109  -0.584232 0.256754 -0.769903
1.55 -0.48 0.334194  -0.601098 0.243833 -0.761069
1.55 -0.44 0.346722  -0.616909 0.229382 -0.752866
1.55 -0.4 0.358569  -0.631598 0.213484 -0.745324
1.55 -0.36 0.369637  -0.645103 0.196235 -0.738467
1.55 -0.32 0.37983  -0.657365 0.177739 -0.732311
1.55 -0.28 0.389056  -0.668328 0.158109 -0.726869
1.55 -0.24 0.397233  -0.677943 0.137467 -0.722147
1.55 -0.2 0.404286  -0.686161 0.115941 -0.718151
1.55 -0.16 0.41015  -0.692944 0.0936676 -0.714881
1.55 -0.12 0.414769  -0.698257 0.0707879 -0.712339
1.55 -0.08 0.418101  -0.702072 0.0474491 -0.710524
1.55 -0.04 0.420112  -0.704369 0.023802 -0.709435
1.55 0 0.420785  -0.705136 0 -0.709072
1.55 0.04 0.420112  -0.704369 -0.023802 -0.709435
1.55 0.08 0.418101  -0.702072 -0.0474491 -0.710524
1.55 0.12 0.414769  -0.698257 -0.0707879 -0.712339
1.55 0.16 0.41015  -0.692944 -0.0936676 -0.714881
1.55 0.2 0.404286  -0.686161 -0.115941 -0.718151
1.55 0.24 0.397233  -0.677943 -0.137467 -0.722147
1.55 0.28 0.389056  -0.668328 -0.158109 -0.726869
1.55 0.32 0.37983  -0.657365 -0.177739 -0.732311
1.55 0.36 0.369637  -0.645103 -0.196235 -0.738467
1.55 0.4 0.358569  -0.631598 -0.213484 -0.745324
1.55 0.44 0.346722  -0.616909 -0.229382 -0.752866
1.55 0.48 0.334194  -0.601098 -0.243833 -0.761069
1.55 0.52 0.32109  -0.584232 -0.256754 -0.769903
1.55 0.56 0.307515  -0.56638 -0.26807 -0.779328
1.55 0.6 0.293572  -0.547617 -0.277718 -0.789296
1.55 0.64 0.279366  -0.528019 -0.285648 -0.79975
1.55 0.68 0.264998  -0.507672 -0.291823 -0.810622
1.55 0.72 0.250566  -0.486663 -0.29622 -0.821835
1.55 0.76 0.236163  -0.465089 -0.298834 -0.833301
1.55 0.8 0.221877  -0.44305 -0.299675 -0.844927
1.55 0.84 0.207789  -0.433625 -0.296757 -0.850826
1.55 0.88 0.193974  -0.42263 -0.295869 -0.856648
1.55 0.92 0.180499  -0.38739 -0.29039 -0.874987
1.55 0.96 0.167423  -0.36415 -0.284852 -0.88671
1.55 1 0.154798  -0.341005 -0.277877 -0.898053
1.55 1.04 0.142668  -0.318094 -0.269592 -0.90892
1.55 1.08 0.131069  -0.295551 -0.260138 -0.919227
1.55 1.12 0.120028  -0.273507 -0.24967 -0.928902
1.55 1.16 0.109565  -0.260306 -0.244319 -0.934103
1.55 1.24 0.0904252  -0.204442 -0.207369 -0.956662
1.55 1.28 0.0817546  -0.192633 -0.201035 -0.960457
1.55 1.32 0.0736793  -0.174699 -0.188036 -0.9665
1.55 1.36 0.0661895  -0.157808 -0.175022 -0.971835
1.55 1.4 0.0592711  -0.141992 -0.162131 -0.9765
1.55 1.44 0.0529063  -0.127269 -0.14949 -0.980538
1.55 1.48 0.0470741  -0.11364 -0.137206 -0.984002
1.55 1.52 0.041751  -0.101092 -0.12537 -0.986946
1.55 1.56 0.0369115  -0.0895986 -0.114056 -0.989426
1.55 1.6 0.0325287  -0.0791253 -0.10332 -0.991496
1.55 1.64 0.0285747  -0.0671146 -0.0882906 -0.993831
1.55 1.68 0.0250212  -0.0610551 -0.0837346 -0.994616
1.55 1.72 0.0218395  -0.0533529 -0.0749245 -0.995761
1.55 1.76 0.0190016  -0.0464631 -0.0667764 -0.996686
1.55 1.8 0.0164796  -0.0403262 -0.0592828 -0.997426
1.55 1.84 0.0142467  -0.0348828 -0.0524283 -0.998015
1.55 1.88 0.0122769  -0.0300739 -0.0461907 -0.99848
1.55 1.92 0.0105457  -0.0258426 -0.0405429 -0.998844
1.55 1.96 0.00902973  -0.0221338 -0.0354537 -0.999126
1.6 -1.96 0.00796272  -0.0204834 0.0312698 -0.999301
1.6 -1.92 0.0092996  -0.0239169 0.0357604 -0.999074
1.6 -1.88 0.0108262  -0.027835 0.0407449 -0.998782
1.6 -1.84 0.0125632  -0.0309589 0.0491437 -0.998312
1.6 -1.8 0.0145323  -0.0373317 0.0523044 -0.997933
1.6 -1.76 0.0167562  -0.043019 0.0589243 -0.997335
1.6 -1.72 0.0192589  -0.049407 0.0661261 -0.996587
1.6 -1.68 0.0220645  -0.0565519 0.0739179 -0.99566
1.6 -1.64 0.0251982  -0.0645093 0.0822995 -0.994518
1.6 -1.6 0.0286849  -0.0733325 0.0912615 -0.993123
1.6 -1.56 0.0325498  -0.0830713 0.100783 -0.991434
1.6 -1.52 0.0368174  -0.0937703 0.110832 -0.989406
1.6 -1.48 0.0415115  -0.105467 0.121361 -0.986989
1.6 -1.44 0.0466546  -0.118191 0.13231 -0.984137
1.6 -1.4 0.0522673  -0.13196 0.143603 -0.980798
1.6 -1.36 0.0583682  -0.14678 0.15515 -0.976926
1.6 -1.32 0.064973  -0.162643 0.166844 -0.972476
1.6 -1.28 0.072094  -0.18687 0.172183 -0.967178
1.6 -1.2 0.0879151  -0.207437 0.207989 -0.955882
1.6 -1.16 0.0966186  -0.235829 0.212517 -0.948273
1.6 -1.12 0.105845  -0.256241 0.222931 -0.940554
1.6 -1.08 0.115581  -0.277318 0.232635 -0.932189
1.6 -1.04 0.12581  -0.298947 0.241475 -0.923212
1.6 -1 0.136506  -0.321006 0.249306 -0.913675
1.6 -0.96 0.147639  -0.343365 0.25599 -0.903643
1.6 -0.92 0.15917  -0.36589 0.261405 -0.893192
1.6 -0.88 0.171053  -0.388449 0.265443 -0.88241
1.6 -0.84 0.183235  -0.410906 0.268016 -0.871392
1.6 -0.8 0.195659  -0.433134 0.269052 -0.860236
1.6 -0.76 0.208257  -0.45501 0.2685 -0.849043
1.6 -0.72 0.220958  -0.476415 0.266327 -0.837913
1.6 -0.68 0.233684  -0.497242 0.26252 -0.826942
1.6 -0.64 0.246354  -0.517388 0.257083 -0.816222
1.6 -0.6 0.258882  -0.53676 0.250034 -0.805836
1.6 -0.56 0.271177  -0.555274 0.241409 -0.79586
1.6 -0.52 0.283148  -0.572849 0.231256 -0.786362
1.6 -0.48 0.294704  -0.589413 0.219636 -0.777401
1.6 -0.44 0.305751  -0.604902 0.20662 -0.769027
1.6 -0.4 0.316199  -0.619253 0.19229 -0.761282
1.6 -0.36 0.325959  -0.632412 0.176736 -0.754201
1.6 -0.32 0.334947  -0.644328 0.160056 -0.747812
1.6 -0.28 0.343083  -0.654956 0.142357 -0.742137
1.6 -0.24 0.350293  -0.664253 0.123751 -0.737193
1.6 -0.2 0.356513  -0.672184 0.104356 -0.732993
1.6 -0.16 0.361684  -0.678716 0.0842958 -0.729547
1.6 -0.12 0.365758  -0.683825 0.0636973 -0.72686
1.6 -0.08 0.368696  -0.687489 0.0426922 -0.724938
1.6 -0.04 0.37047  -0.689694 0.0214145 -0.723784
1.6 0 0.371063  -0.69043 0 -0.723399
1.6 0.04 0.37047  -0.689694 -0.0214145 -0.723784
1.6 0.08 0.368696  -0.687489 -0.0426922 -0.724938
1.6 0.12 0.365758  -0.683825 -0.0636973 -0.72686
1.6 0.16 0.361684  -0.678716 -0.0842958 -0.729547
1.6 0.2 0.356513  -0.672184 -0.104356 -0.732993
1.6 0.24 0.350293  -0.664253 -0.123751 -0.737193
1.6 0.28 0.343083  -0.654956 -0.142357 -0.742137
1.6 0.32 0.334947  -0.644328 -0.160056 -0.747812
1.6 0.36 0.325959  -0.632412 -0.176736 -0.754201
1.6 0.4 0.316199  -0.619253 -0.19229 -0.761282
1.6 0.44 0.305751  -0.604902 -0.20662 -0.769027
1.6 0.48 0.294704  -0.589413 -0.219636 -0.777401
1.6 0.52 0.283148  -0.572849 -0.231256 -0.786362
1.6 0.56 0.271177  -0.555274 -0.241409 -0.79586
1.6 0.6 0.258882  -0.53676 -0.250034 -0.805836
1.6 0.64 0.246354  -0.517388 -0.257083 -0.816222
1.6 0.68 0.233684  -0.497242 -0.26252 -0.826942
1.6 0.72 0.220958  -0.476415 -0.266327 -0.837913
1.6 0.76 0.208257  -0.45501 -0.2685 -0.849043
1.6 0.8 0.195659  -0.433134 -0.269052 -0.860236
1.6 0.84 0.183235  -0.424599 -0.268541 -0.864639
1.6 0.92 0.15917  -0.353194 -0.259134 -0.898946
1.6 0.96 0.147639  -0.343365 -0.25599 -0.903643
1.6 1 0.136506  -0.321006 -0.249306 -0.913675
1.6 1.04 0.12581  -0.298947 -0.241475 -0.923212
1.6 1.08 0.115581  -0.277318 -0.232635 -0.932189
1.6 1.12 0.105845  -0.256241 -0.222931 -0.940554
1.6 1.16 0.0966186  -0.244646 -0.217918 -0.944807
1.6 1.24 0.07974  -0.189817 -0.184336 -0.96436
1.6 1.28 0.072094  -0.179527 -0.178565 -0.967411
1.6 1.32 0.064973  -0.162643 -0.166844 -0.972476
1.6 1.36 0.0583682  -0.14678 -0.15515 -0.976926
1.6 1.4 0.0522673  -0.13196 -0.143603 -0.980798
1.6 1.44 0.0466546  -0.118191 -0.13231 -0.984137
1.6 1.48 0.0415115  -0.105467 -0.121361 -0.986989
1.6 1.52 0.0368174  -0.0937703 -0.110832 -0.989406
1.6 1.56 0.0325498  -0.0830713 -0.100783 -0.991434
1.6 1.6 0.0286849  -0.0733325 -0.0912615 -0.993123
1.6 1.64 0.0251982  -0.0645093 -0.0822995 -0.994518
1.6 1.68 0.0220645  -0.0565519 -0.0739179 -0.99566
